15.23546982 14.05650616 13.67661095
15.10950184 13.65460300 13.82987499
15.19620800 13.69550228 13.96289253
15.14656734 13.43717480 14.11259365
15.01736641 14.21760941 12.39134026
15.18217945 14.51590538 12.33463192
15.02064037 14.21647263 12.38576794
15.18784523 14.51454926 12.32548428
15.29824162 14.75998878 12.32729912
15.02648926 14.21349907 12.38594818
15.39398479 14.93424034 12.32620811
15.38583183 14.93740368 12.34032345
15.30530930 14.75672340 12.31461525
15.19768620 14.51001835 12.32582569
15.31855583 14.74995899 12.31501102
15.40887070 14.92690849 12.32668781
15.20186329 14.50684166 12.33531475
15.32473373 14.74646091 12.32808971
15.41560268 14.92273998 12.34128380
15.02906418 14.21166229 12.39170265
15.31766415 14.74972630 12.34077358
15.40745068 14.92590332 12.35540009
15.39256573 14.93323421 12.35491943
15.19619846 14.50819683 12.34446239
15.02579021 14.21279907 12.39727497
15.30441856 14.75649166 12.34037781
15.18635750 14.51272869 12.34412193
15.01994133 14.21577263 12.39709473
14.66510201 13.51127815 12.57437611
14.53148365 13.25143623 12.61318779
14.82483196 14.02236938 12.31474209
14.89033031 13.98343468 12.44060230
14.43748474 13.21351910 12.44843578
15.18567371 14.49722767 12.34457779
14.60897827 14.04302597 12.11375237
15.24258423 14.82383251 12.18695736
15.33023739 14.79403210 12.34069157
15.10139084 14.52541828 12.26144409
14.95307350 14.88471603 11.96190929
14.97583675 13.94960499 12.34671593
14.60065842 13.10712814 12.47420025
15.17793941 13.88382053 12.09793568
15.40236759 14.75475311 12.24511719
15.24542522 14.45183563 12.26144409
15.55227661 14.67464924 11.94859123
15.20447922 15.56640339 8.49352074
15.21084595 15.56714725 8.48118401
15.25034523 15.35611916 8.47050476
15.25723362 15.35753536 8.45690632
15.29264164 15.17482662 8.45678806
15.22447014 15.56982708 8.48054218
15.29916191 15.17735767 8.44340897
15.30918217 15.07415485 8.44814301
15.31680870 15.07757568 8.43232155
15.33425522 15.08144855 8.43144989
15.27214527 15.36091423 8.45619106
15.31381702 15.18091965 8.44271851
15.34407711 15.08190060 8.44639969
15.32194996 15.18194866 8.45541000
15.28017044 15.36287594 8.46907520
15.31542969 15.17941761 8.46879005
15.33645153 15.07847977 8.46222115
15.23172855 15.57176495 8.49223709
15.27328205 15.36145878 8.48267365
15.30077457 15.17585659 8.46947956
15.31900311 15.07460690 8.46309280
15.25837040 15.35808086 8.48338890
15.22536373 15.57102108 8.50457287
15.21173954 15.56834030 8.50521469
15.20239067 15.67226315 8.49557304
15.19095898 15.66963100 8.49615002
14.70415783 16.99212456 8.00977230
14.84967232 17.64180756 8.38756752
14.89614105 16.96344948 8.24921608
14.97624111 16.95981979 8.32713890
14.72564793 16.57595444 8.06204414
14.99257278 16.84254074 8.31895065
14.91598606 16.63323402 8.25159454
15.00622559 16.64024734 8.32968616
15.14546394 15.95131302 8.44235325
15.06225395 15.94635010 8.36132240
14.85745239 15.89918137 7.97412014
14.93555641 15.51925945 8.06509304
15.14662933 15.56467342 8.38970661
15.21249008 15.57595348 8.50296021
15.32826042 15.07746696 8.45747852
15.27754593 15.08891487 8.32111263
15.03628254 15.09177208 7.98212194
15.15528870 17.26036453 8.02391815
15.04706669 16.99694824 8.24899673
15.24836636 16.76261711 8.00602055
15.09074020 16.67202187 8.25133991
15.38050175 16.04333496 8.05869198
15.22273636 15.98196697 8.36108780
15.50597095 15.70963383 8.02392483
15.27662182 15.59352589 8.38951683
15.58544636 15.21366310 7.98132181
15.36898994 15.10921097 8.32097912
15.05552673 15.62069893 8.42533016
14.90718460 15.72055531 8.32112122
14.95090866 15.60752296 8.28483105
14.86951542 15.66262531 8.23298931
14.86309052 15.42128468 7.93392420
14.37673664 16.12016869 7.78090763
14.33950996 16.04063988 7.68313408
14.20905399 15.88066006 7.40444517
13.75710297 16.55027390 7.34480095
15.11534309 15.69729233 8.33623123
14.96382618 15.79123211 8.24201679
15.14461040 15.87021160 7.90235996
14.44982529 16.19106865 7.69369268
14.69396210 16.29433632 7.43614006
15.60547829 17.03072548 8.39050388
15.69756317 16.77060890 8.45427704
15.87076855 17.02641106 8.52122498
15.50881577 16.86849403 8.31980705
15.64481926 16.70934868 8.44069290
15.35834026 16.94340324 8.21580219
15.45600510 16.79519653 8.29059124
15.56902695 16.62131500 8.42117310
15.35689831 16.65885735 8.24892998
15.12868404 16.70289612 8.11138439
15.49457932 16.51881981 8.41917515
15.32501888 16.60315895 8.24749088
15.39627647 16.39735031 8.42111778
15.28036308 16.53435898 8.24886608
15.06309414 16.54088020 8.11120033
15.23203468 16.44950104 8.24521923
15.30431461 16.25585175 8.43433189
15.18327713 16.37275505 8.24943256
15.05299854 16.09478569 8.30025959
15.19827843 16.08514786 8.42470074
15.13609695 15.98560524 8.43412781
15.96427917 16.79759026 8.36294651
15.84775925 16.64826202 8.29377460
15.96499920 16.54921913 8.16920853
15.75042534 16.57041740 8.26657772
15.80186081 16.27893257 8.06024551
15.66654491 16.44917870 8.22479343
15.62847233 16.39750481 8.22383022
15.55831432 16.35627365 8.22762394
15.63282108 16.15953064 8.06697655
15.49949074 16.27572060 8.22467804
15.44963360 16.19968796 8.22897530
15.25432873 15.96396923 8.28479671
15.33382893 16.49762344 8.38200951
15.39706612 16.40074921 8.42122078
15.39392662 16.40283966 8.43693447
15.33766651 16.49506760 8.36279678
15.21538639 16.41387367 8.22693920
15.25379276 16.62136841 8.33007526
15.25750732 16.61889458 8.31148815
15.14639091 16.61214828 8.18765068
15.13829803 16.77627182 8.27731609
15.14143753 16.77418137 8.26160240
15.39771938 16.40130615 8.42127705
15.33447838 16.49818039 8.38206577
15.39457989 16.40339851 8.43698978
15.33831787 16.49562263 8.36285305
15.25444508 16.62192535 8.33013153
15.47497272 16.60375786 8.26900196
15.25815868 16.61945152 8.31154346
15.13895130 16.77682877 8.27737331
15.31679153 16.73688698 8.21541214
15.14209080 16.77473831 8.26165962
15.75880241 16.85782242 8.43970585
15.69713020 16.77089119 8.45431042
15.70120430 16.77315712 8.47443962
15.75482178 16.85560036 8.42000866
15.64056587 16.84816170 8.37534523
15.82891655 16.97263527 8.40633392
15.71338749 16.93685532 8.34958553
15.82536697 16.97062111 8.38862610
15.75931072 16.85752296 8.43962669
15.70171261 16.77285767 8.47436142
15.69763660 16.77059174 8.45423222
15.75532913 16.85530090 8.41992950
15.82942581 16.97233582 8.40625477
15.78025818 16.74970818 8.36344910
15.82587528 16.97031975 8.38854694
15.83394051 16.85266495 8.33937168
14.77597332 15.84071636 9.07540703
14.77134705 15.71805096 9.05068779
14.77277470 15.71901321 9.07898521
14.77395916 15.83936024 9.03552341
14.64164925 15.76485825 8.90763187
14.77897263 16.04922676 9.06458378
14.61062336 16.07940483 8.84036922
14.41593266 16.15879440 8.69048595
14.77754402 16.04826546 9.03628731
14.78586864 16.22357559 9.04317951
14.61332226 16.17350769 8.83183765
14.78444099 16.22261238 9.01488113
14.80891705 16.38398361 9.03433228
14.61121273 16.27497101 8.83108425
14.38820648 16.33799934 8.68232536
14.80749035 16.38302040 9.00603580
14.61444283 16.35994530 8.82591629
14.82073689 16.51497650 9.03073978
14.61320972 16.42658234 8.82442951
14.46355057 16.67923546 8.77671432
14.81930828 16.51401520 9.00244236
14.62845325 16.60267258 8.86011124
14.63613224 16.69740486 8.88637257
14.63500690 16.89659309 8.95099163
14.85410118 16.71690559 9.02829456
14.85553074 16.71786690 9.05659199
14.87141228 17.03999519 9.08375645
14.87283993 17.04095459 9.11205387
14.77720928 15.84066582 9.07534599
14.77401257 15.71896362 9.07892418
14.77258396 15.71800137 9.05062771
14.77519608 15.83931160 9.03546238
14.78020954 16.04917717 9.06452370
14.89100647 15.75478268 8.89538383
14.77877998 16.04821587 9.03622627
14.78710651 16.22352409 9.04311848
14.94051838 16.06607437 8.82416630
15.12751770 16.12031746 8.65586567
14.78567791 16.22256279 9.01482105
14.81015491 16.38393211 9.03427124
14.94458103 16.16012383 8.81556702
14.95412922 16.26330376 8.81416702
15.21481419 16.31630707 8.64132690
14.80872631 16.38297081 9.00597477
14.82197475 16.51492691 9.03067875
14.99480438 16.33718872 8.80748558
15.00124454 16.40351486 8.80562210
15.01094055 16.55805779 8.84231567
15.21493149 16.64887619 8.73980904
14.82054615 16.51396370 9.00238228
14.85517406 16.71686172 9.02824211
14.85660267 16.71782303 9.05653954
15.05593204 16.68044090 8.86575317
15.07940292 16.87863731 8.92916393
14.87265015 17.03994370 9.08369541
14.87407780 17.04090500 9.11199284
14.67656326 16.27685547 8.97030735
14.78395271 16.22604179 9.01478958
14.77982044 16.22695732 9.03102970
14.68161678 16.27573204 8.95045185
14.61769104 16.13207436 8.81473637
14.54007816 16.34206963 8.91156197
14.54496765 16.34098434 8.89235306
14.45121288 16.27012444 8.76548862
14.35540390 16.41612625 8.85091209
14.35953617 16.41520882 8.83467293
14.78423786 16.22688675 9.01481438
14.67684650 16.27769852 8.97033215
14.78010368 16.22780418 9.03105354
14.68190193 16.27657700 8.95047569
14.54036140 16.34291649 8.91158676
14.74753857 16.44127464 8.84646320
14.54525089 16.34183121 8.89237690
14.35568714 16.41697502 8.85093689
14.53639698 16.47318268 8.78646755
14.35982132 16.41605759 8.83469772
14.86304379 16.82647514 9.00835514
14.85624599 16.72202301 9.04902267
14.86095333 16.82146645 8.98807240
14.76365471 16.75197792 8.94341183
14.86494064 16.96449852 8.96754265
14.78175735 16.86853027 8.91168880
14.86309624 16.95999908 8.94930840
14.85471439 16.71690559 9.02822018
14.86365795 16.82647514 9.00828171
14.85685921 16.72202301 9.04895020
14.86156750 16.82146645 8.98799801
14.86555481 16.96450043 8.96746826
14.94077873 16.73808479 8.93406391
14.86371040 16.95999718 8.94923401
14.93420029 16.85723305 8.90363884
13.89387989 16.43718719 8.55103111
13.68577099 17.09115601 8.89015865
13.60131931 17.14180183 8.80063629
14.06083965 16.51465416 8.79829025
14.12785149 16.55336571 8.87898731
14.10937691 16.08572578 8.63120270
14.19898510 16.45834732 8.87907696
14.23668575 16.23553276 8.82300854
14.30744457 16.28845596 8.90352440
14.58675385 15.95599079 9.00523186
14.68784904 15.70993614 8.98252392
14.55522919 15.55390072 8.59244823
14.75326252 15.75779343 9.06586361
14.80045605 15.26307583 8.71077919
14.94326878 15.41804790 9.03876877
14.98847866 15.46436405 9.15323257
15.33203793 15.08245850 9.14455605
15.29058647 15.06238937 9.00607204
15.09906006 14.93446350 8.65954208
14.15883541 16.89031792 8.56302643
13.64852428 17.18340492 8.80176163
14.17680264 16.61685753 8.80105495
14.48048306 16.49922180 8.58103085
14.37095642 16.35387421 8.82620907
14.93836784 15.93612957 8.68528748
14.81115532 15.81861019 8.98546314
15.21059036 15.70346928 8.67681694
15.04314804 15.50607586 9.04114914
15.52100945 15.30634594 8.66960049
15.36084652 15.12431526 9.00774670
15.22110844 13.95363617 15.25928879
15.13783741 14.19295216 15.26091385
15.02296829 13.99689770 15.42930222
15.27601910 14.06990528 15.13273239
15.17055893 14.23416710 15.22532654
15.38670158 13.97538090 15.03227139
15.30932903 14.12315845 15.07554054
15.22989559 14.30891037 15.16078949
15.37500286 14.22587967 14.97926521
15.54252434 14.14726543 14.82387161
15.28606033 14.39460564 15.11229324
15.39805889 14.27240562 14.95472050
15.32740974 14.45032787 15.08168888
15.43181610 14.33075047 14.92567730
15.58716488 14.28394413 14.76236153
15.36229706 14.49734306 15.05586720
15.46639729 14.40121555 14.88715649
15.43425274 14.62033939 15.00456238
15.50377083 14.46708107 14.85719967
15.60756779 14.71623898 14.78895950
15.51086903 14.76136398 14.92304993
15.55935669 14.84794617 14.88767815
14.88892174 14.14554977 15.25928879
14.96221924 14.25119686 15.13273239
14.82504463 14.29986763 15.03227139
15.03399181 14.30857849 15.06503296
14.92039108 14.49611282 14.82809067
15.08762646 14.39858150 14.97660255
15.11641693 14.44179440 14.95205784
15.17469215 14.47732067 14.92646694
15.05877972 14.59799385 14.75885868
15.21878147 14.54427052 14.88715649
15.25717258 14.60954666 14.85719967
15.42117405 14.82392406 14.78895950
15.41420364 14.40070248 15.03683567
15.36188889 14.49449921 15.05709553
15.36841011 14.49724960 15.06970406
15.40622997 14.39734268 15.02141953
15.47387218 14.42598343 14.85824203
15.47995949 14.28036308 15.00963306
15.53848934 14.24626827 14.86488342
15.47224426 14.27711296 14.99471855
15.57830429 14.13315773 14.98181438
15.57178307 14.13040829 14.96920586
15.36138058 14.49404907 15.05745697
15.41369820 14.40025234 15.03719616
15.36790276 14.49679661 15.07006550
15.40572357 14.39689159 15.02177906
15.47945118 14.27991199 15.00999451
15.27405834 14.27914906 15.00903416
15.47173691 14.27666092 14.99507904
15.57779598 14.13270569 14.98217583
15.40736866 14.14984608 14.96401691
15.57127571 14.12995720 14.96956730
15.08806324 14.11531544 15.28841877
15.02826977 14.00893879 15.31051254
15.02704716 14.00550270 15.29466724
15.08673286 14.11147785 15.27079201
15.13959312 14.19664669 15.27892780
15.11186218 14.02203846 15.22608280
15.13823795 14.19272041 15.26091385
15.17410755 14.10407925 15.20444012
15.08758640 14.11555004 15.28839588
15.02656841 14.00573826 15.29464340
15.02779102 14.00917339 15.31048775
15.08625412 14.11171246 15.27076721
14.99960423 14.09120464 15.22366524
15.13911724 14.19688034 15.27890491
15.04394627 14.18496895 15.20133972
15.13776207 14.19295502 15.26089001
15.49001789 14.39692497 12.89105415
15.48424911 14.39783096 12.88005257
15.49734974 14.61201477 12.88209343
15.49148655 14.61242962 12.87092209
15.50235653 14.79837894 12.87234020
15.47181511 14.39834118 12.87956238
15.49534607 14.79770851 12.85898495
15.50960064 14.90029716 12.86576462
15.50129318 14.89906979 12.84996510
15.48341846 14.89937210 12.84920788
15.48026085 14.79766083 12.85838604
15.47385120 14.90090179 12.86425018
15.47887707 14.61258793 12.87041187
15.47218704 14.79828453 12.87114143
15.47213078 14.61232853 12.88107300
15.47919750 14.79895496 12.88449669
15.48215866 14.90213013 12.88005066
15.46514893 14.39794445 12.89007568
15.47799301 14.61191368 12.89224339
15.47091770 14.39703846 12.90107727
15.46914768 14.28903675 12.90297604
15.48335171 14.39652920 12.90156555
15.48088074 14.28892994 12.90347958
15.49060249 14.61175632 12.89275360
15.49428272 14.79900265 12.88509655
15.50003242 14.90182781 12.88080788
15.47276115 14.07937241 12.90831661
15.57034111 14.76237488 12.81023788
15.48864269 14.79073811 12.88792706
15.56178665 14.05199718 12.83337879
15.75873947 14.51392460 12.54239368
15.44168568 13.88055420 12.93533039
15.75869846 14.03034401 12.64312744
15.50878716 13.73080444 12.89227486
15.43198490 13.76615238 12.96543884
15.68811989 13.61712456 12.66882420
15.40649128 13.09644699 13.15418148
15.40595627 14.76294899 12.81107998
15.38278294 14.05262089 12.83429527
15.22486305 14.39188576 12.55361748
15.20740032 13.95421124 12.60453224
15.35419178 13.73134232 12.89306641
15.18929291 13.46039009 12.71656322
14.82448483 15.76235104 8.23256683
14.82259941 15.77183819 8.24326229
14.72917175 15.85334396 8.13947582
14.96971893 15.65594196 8.37421799
14.96876049 15.66626549 8.38767242
15.05365849 15.61156559 8.43040657
15.05390930 15.60217094 8.41727257
14.83042431 15.78393650 8.24363232
14.97783566 15.68060780 8.38802624
15.14025593 15.55620670 8.46888924
15.13975906 15.54756641 8.45581055
15.06230545 15.62519646 8.43074703
15.22895622 15.49899292 8.49771690
15.22794724 15.49081039 8.48464203
15.14865208 15.56943321 8.46922302
15.23726654 15.51202011 8.49805927
14.98786831 15.68462658 8.37492466
15.07120609 15.62943172 8.41795444
15.15655231 15.57401943 8.45647621
15.24456787 15.51686573 8.48532677
14.84013271 15.78654861 8.23330784
15.15605545 15.56537914 8.44339657
15.24355888 15.50868511 8.47225094
15.23524857 15.49565601 8.47190857
15.07145882 15.62003708 8.40482140
15.14765930 15.55215263 8.44306374
15.06280994 15.60640717 8.40448093
14.98882675 15.67430401 8.36147022
14.97975159 15.65996170 8.36111736
14.84201908 15.77706146 8.22261238
14.83419418 15.76496315 8.22224236
14.73500729 15.84254646 8.12707520
14.74154186 15.85323048 8.12716675
15.67277718 15.72301769 14.42399502
15.67278004 15.68190765 14.35058975
15.67287827 15.72244930 14.42431641
15.67405891 15.68312740 14.34988499
15.67324066 15.72293377 14.42405224
15.67445755 15.61497879 14.23925304
15.67229748 15.61304760 14.24064255
15.67591476 15.68279266 14.35011196
15.67649460 15.68124008 14.35104370
15.67759514 15.61435223 14.23953819
15.67857170 15.61179543 14.24121475
15.67521667 15.68002129 14.35174656
15.67335987 15.68035507 14.35151958
15.67641068 15.60986423 14.24260426
15.67327499 15.61049080 14.24231911
15.66937733 15.53611755 14.13585281
15.66662407 15.53388596 14.13795948
15.66262341 15.53484344 14.13777542
15.66137409 15.53803062 14.13548565
15.64862061 15.45129967 14.04000187
15.64388752 15.45237255 14.03969860
15.64236069 15.45583344 14.03663158
15.63355923 15.35727978 13.95286751
15.63175106 15.36065960 13.94890022
15.60869598 15.25406075 13.87918091
15.61077404 15.25075531 13.88388062
15.63893414 15.35612488 13.95324039
15.57472515 15.14344788 13.82051468
15.65182495 15.45368862 14.03724098
15.61665726 15.24912071 13.88408947
15.66812801 15.53930378 14.13356304
15.64250088 15.35835075 13.94964600
15.66412640 15.54026127 14.13337994
15.65029716 15.45715046 14.03417492
15.64556599 15.45822239 14.03387070
15.63531685 15.36288548 13.94530487
15.64069271 15.36173153 13.94567680
15.61838722 15.25409603 13.87489986
15.61250210 15.25573254 13.87469101
15.62046432 15.25079060 13.87959957
15.58525562 15.14317226 13.81571960
15.57885551 15.14508057 13.81552219
15.54579067 15.03426361 13.75601578
15.58752441 15.13963223 13.82091141
15.55025482 15.03598213 13.75057220
15.58339310 15.13800049 13.82590580
15.52370358 14.91959095 13.69838715
15.51898670 14.91812611 13.70442963
15.55724430 15.03411674 13.75090504
15.53124523 14.91762543 13.69875813
15.55977058 15.03053474 13.75668335
15.53407097 14.91419506 13.70517063
15.55530643 15.02881718 13.76212597
15.52935410 14.91272926 13.71121216
15.52181244 14.91469479 13.71084213
15.57699299 15.13990784 13.82570648
15.54831600 15.03068066 13.76179123
15.84176826 14.91013432 10.66565132
15.83714771 14.90567207 10.65570545
15.66557217 14.95432854 10.69706535
15.83390427 14.89429379 10.65526962
15.66096401 14.94928551 10.68595886
15.51403522 14.98998547 10.72930717
15.83528042 14.88737965 10.66477966
15.51042938 14.98479843 10.71810722
15.43223381 15.01515388 10.74601173
15.42831421 15.00892639 10.73266602
15.42446995 14.99419689 10.73196793
15.65773678 14.93666840 10.68537045
15.50743771 14.97230911 10.71748543
15.42454529 14.98569298 10.74461269
15.65911484 14.92909431 10.69588852
15.50804901 14.96500683 10.72806263
15.51165485 14.97019386 10.73926258
15.42846394 14.99191952 10.75795841
15.66372299 14.93413639 10.70699406
15.51464844 14.98268318 10.73988533
15.43230820 15.00664997 10.75865841
15.66695118 14.94675350 10.70758438
15.83990097 14.89184189 10.67472553
15.84314442 14.90322018 10.67516136
15.92295456 14.88204098 10.64359188
15.92050362 14.87235451 10.64310741
14.89155197 14.96162224 10.03623009
14.89319420 14.96845627 10.02670097
15.07495117 14.97700310 10.04690075
14.89245129 14.98023319 10.02766418
15.07624722 14.98450184 10.03631306
15.23255348 14.99185276 10.06157207
14.89006519 14.98517418 10.03815365
15.23285103 14.99915504 10.05099201
15.31948376 14.99441814 10.06794357
15.31947136 15.00303459 10.05537319
15.31815720 15.01817513 10.05651379
15.07506466 14.99744701 10.03730583
15.23148537 15.01190376 10.05195141
15.31685925 15.02469826 10.07022476
15.07258511 15.00289249 10.04888535
15.22982121 15.01735115 10.06348991
15.22952271 15.01004887 10.07406998
15.31687069 15.01608276 10.08279514
15.07128906 14.99539375 10.05947304
15.23088837 14.99729919 10.07311058
15.31818295 15.00094223 10.08165455
15.07247162 14.98244858 10.05848026
14.88842487 14.97834110 10.04768181
14.88916874 14.96656418 10.04671955
14.80358124 14.96258640 10.02495193
14.80264378 14.97251797 10.02568436
14.76382160 15.72733688 13.15419674
14.81612968 15.68345070 13.10504150
14.76417828 15.72717094 13.15472603
14.81633282 15.68494797 13.10388756
14.76415825 15.72765923 13.15428352
14.89971924 15.61550045 13.03242111
14.89922237 15.61309814 13.03449821
14.81768513 15.68623734 13.10423470
14.81883430 15.68603039 13.10573483
14.90207767 15.61761570 13.03294563
14.90393925 15.61732960 13.03554440
14.81863117 15.68453217 13.10688782
14.81727886 15.68324280 13.10654068
14.90344048 15.61492729 13.03762054
14.90108204 15.61281204 13.03709698
14.98468018 15.53757668 12.97203827
14.98377800 15.53474045 12.97488976
14.98060036 15.53218365 12.97431850
14.97832775 15.53246212 12.97089672
15.06125546 15.44622612 12.92101288
15.05756760 15.44314384 12.92028332
15.05517578 15.44315720 12.91604233
15.14505959 15.35624599 12.88177681
15.14283371 15.35575199 12.87675095
15.22459412 15.25705051 12.85861588
15.22670364 15.25799274 12.86427212
15.14919567 15.35979176 12.88260365
15.29854679 15.15065193 12.85219288
15.06255054 15.44932365 12.91749954
15.23155403 15.26160622 12.86515236
14.98240662 15.53785515 12.96861553
15.15110588 15.36284542 12.87840462
14.97922897 15.53529739 12.96804523
15.06015968 15.44933701 12.91325855
15.05647182 15.44625473 12.91252995
15.14474583 15.35880470 12.87255192
15.14888191 15.36235046 12.87337875
15.23218632 15.26333237 12.85472107
15.22733593 15.25971985 12.85383987
15.23429489 15.26427460 12.86037731
15.30706024 15.15725517 12.84796333
15.30168533 15.15340996 12.84697819
15.37663269 15.04735947 12.83987999
15.30929565 15.15834045 12.85416603
15.38007164 15.05030155 12.83422089
15.30615711 15.15558147 12.85938072
15.46070671 14.94797897 12.83611393
15.45673656 14.94515514 12.84220886
15.38575172 15.05465889 12.83531094
15.46679783 14.95271206 12.83728123
15.38799286 15.05607605 12.84206104
15.46892071 14.95462036 12.84454155
15.38455391 15.05313396 12.84772110
15.46495056 14.95179558 12.85063648
15.45885849 14.94706249 12.84947109
15.30078220 15.15173817 12.85839558
15.37887383 15.04877567 12.84662914
15.65567112 15.45685863 9.74367332
15.65912437 15.45203781 9.73259640
15.53946209 15.29948330 9.74498749
15.66902161 15.44432926 9.73190975
15.54359627 15.29461002 9.73271370
15.44134140 15.16240311 9.75165367
15.67546558 15.44144249 9.74230003
15.44602299 15.15845680 9.73945904
15.38263798 15.09091854 9.75434875
15.38841152 15.08656216 9.73988438
15.40138054 15.07694817 9.73891544
15.55472851 15.28643513 9.73190594
15.45712566 15.15056705 9.73865223
15.40857410 15.07168865 9.75241089
15.56172657 15.28313351 9.74337101
15.46354866 15.14662457 9.75004005
15.45886517 15.15057087 9.76223469
15.40279961 15.07604599 9.76687622
15.55759335 15.28800583 9.75564384
15.44776344 15.15846062 9.76304150
15.38983154 15.08565998 9.76784515
15.54646206 15.29618168 9.75645256
15.67201233 15.44626141 9.75337791
15.66211510 15.45397091 9.75406456
15.71749020 15.52734852 9.73535156
15.72604942 15.52110481 9.73470211
15.12889767 14.52175236 7.93230391
15.12608624 14.53010559 7.92155361
15.22356701 14.70112896 8.00790119
15.11405849 14.53706169 7.92111540
15.22021008 14.70985413 7.99577761
15.30177307 14.85507011 8.07881927
15.10484314 14.53566360 7.93142700
15.29799175 14.86273003 8.06637001
15.35080051 14.93662453 8.11661434
15.34613991 14.94534111 8.10169888
15.33048534 14.95397186 8.10090065
15.20678329 14.71717358 7.99509239
15.28465080 14.86975384 8.06560326
15.31949329 14.95388794 8.11501884
15.19671345 14.71576786 8.00653076
15.27509117 14.86912060 8.07728577
15.27887249 14.86146069 8.08973598
15.32415390 14.94517040 8.12993431
15.20006943 14.70704079 8.01865387
15.29221439 14.85443687 8.09050179
15.33980656 14.93654060 8.13073254
15.21349621 14.69972229 8.01933956
15.10765457 14.52731037 7.94217682
15.11968231 14.52035522 7.94261503
15.07725716 14.44274235 7.88829994
15.06694412 14.44833565 7.88773108
14.74428272 15.06206894 5.02297831
14.75007439 15.06754684 5.01158953
14.95145130 15.02516460 5.07370090
14.75297546 15.08113384 5.01111698
14.95726776 15.03130817 5.06094074
15.12903881 14.99624729 5.12340307
14.75008869 15.08924007 5.02203274
15.13367844 15.00247669 5.11045599
15.22543621 14.97369385 5.14951849
15.23052120 14.98114014 5.13406229
15.23387146 14.99869823 5.13326597
14.96006203 15.04634285 5.06026554
15.13621140 15.01734066 5.10972595
15.23213959 15.00881100 5.14792490
14.95704174 15.05523396 5.07235003
15.13410473 15.02597713 5.12194252
15.12946415 15.01974773 5.13488960
15.22705555 15.00136566 5.16338110
14.95122528 15.04909134 5.08511019
15.12693119 15.00488377 5.13562012
15.22370338 14.98380661 5.16417789
14.94843006 15.03405571 5.08578539
14.74429893 15.08376026 5.03342199
14.74139595 15.07017422 5.03389454
14.64877319 15.08803082 4.99058294
14.65088940 15.09957027 4.99002409
15.30440807 14.87897205 5.47719288
15.26720524 14.77711487 5.45053387
15.31740093 14.87380505 5.45283508
15.25702381 14.78021240 5.46891880
15.27871418 14.89031601 5.47727346
15.21227551 14.68076229 5.45415878
15.22171497 14.67905331 5.43805361
15.23758793 14.78873825 5.46897221
15.14653683 14.50862885 5.41526604
15.26601410 14.89649105 5.45299625
15.19510937 14.68828869 5.45420456
15.22833252 14.79416943 5.45064116
15.23851395 14.79107189 5.43225574
15.27900696 14.89132404 5.42863798
15.18738365 14.69410324 5.43814564
15.25794983 14.78254509 5.43220186
15.30470085 14.87998009 5.42855692
15.19682312 14.69239426 5.42203951
15.21398926 14.68486881 5.42199373
15.13988400 14.51468849 5.40086222
15.09656048 14.38723278 5.37320900
15.12432861 14.52148438 5.40090370
15.09156990 14.39382172 5.36140347
15.03611279 14.23442364 5.30321026
15.07842541 14.39973450 5.36147261
15.11542416 14.52221966 5.41535044
15.07027149 14.39905739 5.37334776
15.02068043 14.24607849 5.29336309
15.03224659 14.24127388 5.29344893
14.94588852 14.03863239 5.15948725
14.95415211 14.04400253 5.14771223
14.94383621 14.04788589 5.14740849
15.01298046 14.24403381 5.30303764
15.01684570 14.23718357 5.31279898
15.02841282 14.23237801 5.31288481
15.07526302 14.39246941 5.38515234
15.08840656 14.38655567 5.38508368
15.13763237 14.50936508 5.42971230
15.12207603 14.51616096 5.42975473
15.49653053 14.90029621 13.99698925
15.38223362 14.95366764 14.00124264
15.49692345 14.91372776 13.99281597
15.38749981 14.96378613 13.99834061
15.50143147 14.92370892 14.00164890
15.30330658 15.00611496 13.99721241
15.29858494 14.99776363 14.00009727
15.39196110 14.97369003 14.00743103
15.30692101 15.01396084 14.00439835
15.39115715 14.97347355 14.01942253
15.50554562 14.92025948 14.01465416
15.30581379 15.01345444 14.01446629
15.38589096 14.96335506 14.02232361
15.50515270 14.90682793 14.01882648
15.30109215 15.00510120 14.01735115
15.29747772 14.99725628 14.01016617
15.38142872 14.95345211 14.01323414
15.50064564 14.89684677 14.00999451
15.14846134 14.43284607 6.09091806
15.14406490 14.43949509 6.07952881
15.22059059 14.63052654 6.14163971
15.13118362 14.44470024 6.07905626
15.21554375 14.63731670 6.12888002
15.27974415 14.80045128 6.19134283
15.12270069 14.44325638 6.08997250
15.27441025 14.80609798 6.17839527
15.31860638 14.89150620 6.21745777
15.31215191 14.89779949 6.20200205
15.29543591 14.90413284 6.20120525
15.20121765 14.64266682 6.12820482
15.26020622 14.81116009 6.17766523
15.28517532 14.90417290 6.21586418
15.19193840 14.64122677 6.14028978
15.25133610 14.81057549 6.18988228
15.25667000 14.80492973 6.20282888
15.29163074 14.89787960 6.23132086
15.19698429 14.63443661 6.15304899
15.27087402 14.79986763 6.20355940
15.30834675 14.89154625 6.23211718
15.21131039 14.62908745 6.15372467
15.12709808 14.43660736 6.10136080
15.13997936 14.43140221 6.10183382
15.10639381 14.34325504 6.05852222
15.09539413 14.34733200 6.05796385
16.23110962 14.88401794 11.36014748
15.84635544 14.92491436 11.27212238
16.23231888 14.88726997 11.35457706
15.84777641 14.93032551 11.26283264
16.23279953 14.89381695 11.35464191
15.65315151 14.94285011 11.22930908
15.64964962 14.93553638 11.24178791
15.45583439 14.94809914 11.19945812
15.45920372 14.95632076 11.18542957
15.84815502 14.94115925 11.26287365
15.65427303 14.95768642 11.22944450
15.46021366 14.97288895 11.18556023
15.84711266 14.94658279 11.27220535
16.23207283 14.89710903 11.36027718
15.65189171 14.96520805 11.24206257
15.45785236 14.98123741 11.19972038
15.45448303 14.97301769 11.21374893
15.84569073 14.94117165 11.28149605
16.23086357 14.89385700 11.36584568
15.64839077 14.95789528 11.25454330
15.45347404 14.95644855 11.21361637
15.84531212 14.93033791 11.28145504
16.23038292 14.88731003 11.36578178
15.64726925 14.94305992 11.25440693
15.82594109 14.76143265 9.47843361
15.82055378 14.75758839 9.46775341
15.66035652 14.86463737 9.49269962
15.81363392 14.74710369 9.46762562
15.65487766 14.86010933 9.48082638
15.51680851 14.95145130 9.51061440
15.81209946 14.74046326 9.47817898
15.51230049 14.94645119 9.49874401
15.44128609 15.00423050 9.51921463
15.43628025 14.99810600 9.50510883
15.42768860 14.98440742 9.50483513
15.64758301 14.84835625 9.48060799
15.50528812 14.93474960 9.49850464
15.42410374 14.97683334 9.51866627
15.64576530 14.84113121 9.49226284
15.50278187 14.92804623 9.51013565
15.50728893 14.93304634 9.52200603
15.42910862 14.98295784 9.53277302
15.65124321 14.84565926 9.50413513
15.51430225 14.94474792 9.52224445
15.43770027 14.99665642 9.53304672
15.65853882 14.85741138 9.50435352
15.81748486 14.74430752 9.48885918
15.82440472 14.75479221 9.48898697
15.90028000 14.70545959 9.46428585
15.89471054 14.69642544 9.46408653
15.80157757 14.23577881 11.52175236
15.62343979 14.58622074 11.46777439
15.80473137 14.23696613 11.51612186
15.62836552 14.58868980 11.45843315
15.81048679 14.24012089 11.51618958
15.53186226 14.76067352 11.44203186
15.52434444 14.75866318 11.45471764
15.42794895 14.93066406 11.42947388
15.43609238 14.93339825 11.41526318
15.63766098 14.59426689 11.45851612
15.54492283 14.76780033 11.44217396
15.45054531 14.94156170 11.41542244
15.64203072 14.59737396 11.46794128
15.81308842 14.24208927 11.52188778
15.55046463 14.77291489 11.45500374
15.45685482 14.94699192 11.42979145
15.44871140 14.94425774 11.44400120
15.63710499 14.59490490 11.47728252
15.80993366 14.24090195 11.52751923
15.54294682 14.77090454 11.46769047
15.43425846 14.93609333 11.44384289
15.62780952 14.58932781 11.47719860
15.80417919 14.23774624 11.52745056
15.52988625 14.76377773 11.46754742
14.74905586 14.43247890 11.59023666
15.04332256 14.68370724 11.50221157
14.75058651 14.42936516 11.58466625
15.04627419 14.67895508 11.49292183
14.75500774 14.42451382 11.58473110
15.18920135 14.81165028 11.45939827
15.18629837 14.81922054 11.47187710
15.32869625 14.95130253 11.42954731
15.33234692 14.94320297 11.41551876
15.05387878 14.67123032 11.49296284
15.19919968 14.80063343 11.45953369
15.34368229 14.93107605 11.41564941
15.05853367 14.66825771 11.50229454
14.75789928 14.42277813 11.59036636
15.20629978 14.79718971 11.47215176
15.35136700 14.92704964 11.42980957
15.34771538 14.93514824 11.44383717
15.05558300 14.67301083 11.51158524
14.75636959 14.42589188 11.59593487
15.20339775 14.80475998 11.48463249
15.33638000 14.94727421 11.44370556
15.04797649 14.68073559 11.51154423
14.75194645 14.43074322 11.59587002
15.19339848 14.81577682 11.48449516
15.14331150 14.28631592 11.01755714
15.26377678 14.66378307 11.03910637
15.14669132 14.28597736 11.01194191
15.26951218 14.66378117 11.02990246
15.15299892 14.28416348 11.01201630
15.32161617 14.85349560 11.05120373
15.31417084 14.85500717 11.06400204
15.36683273 15.04627037 11.07661343
15.37530994 15.04510593 11.06238270
15.28003788 14.66119099 11.03007698
15.33590698 14.84935760 11.05135441
15.39131832 15.04071999 11.06259727
15.28482628 14.65860176 11.03945541
15.15592766 14.28268909 11.01770496
15.34275246 14.84673309 11.06430435
15.39885139 15.03749943 11.07704163
15.39037418 15.03866577 11.09127331
15.27908993 14.65860271 11.04865837
15.15254879 14.28302670 11.02332020
15.33530807 14.84824562 11.07710266
15.37436485 15.04304981 11.09105778
15.26856422 14.66119385 11.04848385
15.14624023 14.28484058 11.02324581
15.32101727 14.85238266 11.07695198
15.78818035 15.69158459 10.87736511
15.59137821 15.35943222 10.96901798
15.78448105 15.69180584 10.87195015
15.58500195 15.35930729 10.96024799
15.77874374 15.69499493 10.87202835
15.49520588 15.19207478 11.01619339
15.50323009 15.19091606 11.02867508
15.41180420 15.02097225 11.07636452
15.40257740 15.02180958 11.06258392
15.57534027 15.36421680 10.96050072
15.48221397 15.19932461 11.01634789
15.38797474 15.02969837 11.06284237
15.57205486 15.36925125 10.96952534
15.77670765 15.69796276 10.87752056
15.47724533 15.20541477 11.02898407
15.38259602 15.03674889 11.07688332
15.39182186 15.03591156 11.09066391
15.57843113 15.36937618 10.97829723
15.78040695 15.69774055 10.88293552
15.48526955 15.20425606 11.04146576
15.40642643 15.02802372 11.09040356
15.58809280 15.36446476 10.97804260
15.78614426 15.69455147 10.88285828
15.49826145 15.19700813 11.04131222
15.33087826 14.95414639 8.69793415
15.35554504 14.84741306 8.67628002
15.34399414 14.95571995 8.67314720
15.34577847 14.84535027 8.69503117
15.30320549 14.94944382 8.69890499
15.36310387 14.73708916 8.68554783
15.37153912 14.74001884 8.66906548
15.32487392 14.84174728 8.69576073
15.40254498 14.55545712 8.65524292
15.28864861 14.94631481 8.67509079
15.34464550 14.73390388 8.68619061
15.31373787 14.84020710 8.67773914
15.32350445 14.84226990 8.65898705
15.30176353 14.94788742 8.65030479
15.33462238 14.73364544 8.67035103
15.34440899 14.84587288 8.65825844
15.32943535 14.95258999 8.64933300
15.34305763 14.73657513 8.65386868
15.36151600 14.73976326 8.65322590
15.39332008 14.55608082 8.64099693
15.42700863 14.42460155 8.61944199
15.37660503 14.55317497 8.64157963
15.41893673 14.42671967 8.60769367
15.45945740 14.26034355 8.55722618
15.40472031 14.42440605 8.60821438
15.36911583 14.54964161 8.65641022
15.39857674 14.41997528 8.62048531
15.43993092 14.26103210 8.54778099
15.45222473 14.26340675 8.54745579
15.48913670 14.04000473 8.42418385
15.49278164 14.04841042 8.41186237
15.48203468 14.04594421 8.41193676
15.43487072 14.25559521 8.55787563
15.44210339 14.25253296 8.56764603
15.45439625 14.25490665 8.56732178
15.40664864 14.41785812 8.63223362
15.42086506 14.42017174 8.63171291
15.39505482 14.55192471 8.67007351
15.37834072 14.54901695 8.67065811
15.12432098 15.55840683 6.07384157
15.13217354 15.55570984 6.06269217
15.18151474 15.35611153 6.12540340
15.14564419 15.55914116 6.06268358
15.19001961 15.35369396 6.11290503
15.23276901 15.18387318 6.17590952
15.15126228 15.56526852 6.07382441
15.24083424 15.18254852 6.16321468
15.25447941 15.08734131 6.20224190
15.26391602 15.08617115 6.18708277
15.28115368 15.09096527 6.18688202
15.20474529 15.35786438 6.11273956
15.25529480 15.18687916 6.16298628
15.28895569 15.09692669 6.20183992
15.21096897 15.36445236 6.12507248
15.26169014 15.19253540 6.17545223
15.25362492 15.19385910 6.18814611
15.27952099 15.09809685 6.21699858
15.20246410 15.36687088 6.13757086
15.23916340 15.18952847 6.18837500
15.26228237 15.09330273 6.21719980
15.18773746 15.36269951 6.13773584
15.14340878 15.56796360 6.08497429
15.12993717 15.56453228 6.08498287
15.10626507 15.65568924 6.04135036
15.11755657 15.65891647 6.04118252
15.45884228 15.01764774 7.88859558
15.56830502 14.99558163 7.88778448
15.46761036 15.03062725 7.86528301
15.56251335 14.98553658 7.90558338
15.45153046 14.99054527 7.88767481
15.66797352 14.95596409 7.91625881
15.67200756 14.96512699 7.90041018
15.55703449 14.96504211 7.90489101
15.85194206 14.91600323 7.92105198
15.45298576 14.97642326 7.86344051
15.66314220 14.93786621 7.91564798
15.55734825 14.95459461 7.88640118
15.56314087 14.96463966 7.86860132
15.46175385 14.98940182 7.84012794
15.66234303 14.92892933 7.89918804
15.56861877 14.98513317 7.86929321
15.46906662 15.01650333 7.84104919
15.66637707 14.93809128 7.88333893
15.67120934 14.95619011 7.88395071
15.85037518 14.90813541 7.90608263
15.98557472 14.88386536 7.91042280
15.84601879 14.89173698 7.90553427
15.98266315 14.87762642 7.89776182
16.15737915 14.84539318 7.88030386
15.97881031 14.86374569 7.89729357
15.84322929 14.88320732 7.91995573
15.97786808 14.85610485 7.90948582
15.84479618 14.89107609 7.93492603
15.98077965 14.86234188 7.92214632
15.84915257 14.90747356 7.93547344
15.98463249 14.87622261 7.92261505
16.15820122 14.83834648 7.89063644
16.38860703 14.76716232 7.78556156
16.15522575 14.82618904 7.89017010
16.15143204 14.82107639 7.87937117
16.15061188 14.82812214 7.86903811
16.38278008 14.76341724 7.77185917
16.38499260 14.77420616 7.77240562
16.15358543 14.84028053 7.86950445
15.79144764 15.34426117 8.21240139
15.79320621 15.33752251 8.20036983
15.61873055 15.21440315 8.22499466
15.80124760 15.32619476 8.19985962
15.62115288 15.20733452 8.21163273
15.47176361 15.10058212 8.24200630
15.80752754 15.32160568 8.21138000
15.47506332 15.09432507 8.22866726
15.38710880 15.04357052 8.25015736
15.39135838 15.03642273 8.23431396
15.40204334 15.02209091 8.23354053
15.63035107 15.19511700 8.21098995
15.48431969 15.08241653 8.22801113
15.40847874 15.01490593 8.24861145
15.63712502 15.18996525 8.22371101
15.49027824 15.07676601 8.24069405
15.48697948 15.08302307 8.25403214
15.40422916 15.02205276 8.26445580
15.63470173 15.19703293 8.23707294
15.47772217 15.09493160 8.25468826
15.39354324 15.03638363 8.26522827
15.62550354 15.20925236 8.23771477
15.80576611 15.32834435 8.22341061
15.79772663 15.33967209 8.22392178
15.87889576 15.39895821 8.19802952
15.88598156 15.38960648 8.19750214
15.81274414 15.18817139 8.95808697
15.80917931 15.18011761 8.94732952
15.61822701 15.12612629 9.02996731
15.81296921 15.16674614 8.94710064
15.61482525 15.11741543 9.01784611
15.45333672 15.07081985 9.09776306
15.82032394 15.16142654 8.95762825
15.45099068 15.06257439 9.08533478
15.36053085 15.04681206 9.13373375
15.35813332 15.03717327 9.11884975
15.36336517 15.02007008 9.11832714
15.61937141 15.10280514 9.01739883
15.45568180 15.04823494 9.08480644
15.37099457 15.01260567 9.13268948
15.62731934 15.09690666 9.02907181
15.46272087 15.04214001 9.09670544
15.46506691 15.05038548 9.10913372
15.37339211 15.02224445 9.14757252
15.63072109 15.10561848 9.04119301
15.46037579 15.06472492 9.10966301
15.36816025 15.03934765 9.14809513
15.62617493 15.12022781 9.04164124
15.82388783 15.16947842 8.96838474
15.82009697 15.18285084 8.96861458
15.90579033 15.20847416 8.91594601
15.90930176 15.19727230 8.91555977
15.36220074 14.89392567 4.75317812
15.45950031 14.84605408 4.72651911
15.36872673 14.90629196 4.72881985
15.45533276 14.83626175 4.74490404
15.34817696 14.86959076 4.75325871
15.54943371 14.78114510 4.73014402
15.55214119 14.79034710 4.71403837
15.44477749 14.81784725 4.74495745
15.71355915 14.69739342 4.69125128
15.34067917 14.85762310 4.72898102
15.54011726 14.76488113 4.73018932
15.43839073 14.80922604 4.72662640
15.44255733 14.81901836 4.70824051
15.34720516 14.86999035 4.70462322
15.53350925 14.75782204 4.71413040
15.45311260 14.83743286 4.70818758
15.36122894 14.89432430 4.70454264
15.53621674 14.76702499 4.69802475
15.54553223 14.78328800 4.69797945
15.70682335 14.69142628 4.67684698
15.82892036 14.63473511 4.64919376
15.69840431 14.67668629 4.67688894
15.82183552 14.63047695 4.63738871
15.97439766 14.55830860 4.57919502
15.81455326 14.61803913 4.63745785
15.69672108 14.66791248 4.69133520
15.81435490 14.60986042 4.64933205
15.96116066 14.54420948 4.56934738
15.96717358 14.55519772 4.56943417
16.15942955 14.44768524 4.43547201
16.15497208 14.45647430 4.42369747
16.15001106 14.44663143 4.42339277
15.96237183 14.53633499 4.57902241
15.96959591 14.53944683 4.58878374
15.97560883 14.55043411 4.58887005
15.82143879 14.61411953 4.66113758
15.82872295 14.62655640 4.66106844
15.71187592 14.68861866 4.70569706
15.70345688 14.67387867 4.70573950
15.44391346 14.88560772 15.13646984
15.41862488 14.92833710 15.10949230
15.44281006 14.88667202 15.13934326
15.41943169 14.92753887 15.10744762
15.41817379 14.92600441 15.10621071
15.44219685 14.88341904 15.13477230
15.41610527 14.92526722 15.10701847
15.43937588 14.88229465 15.13595104
15.41529846 14.92606449 15.10906315
15.43827343 14.88335896 15.13882446
15.43999004 14.88554668 15.14052105
15.41655731 14.92759991 15.11030006
15.28767776 14.93909168 15.09736824
15.32175255 14.89240360 15.10391712
15.32438564 14.89543629 15.10104847
15.28586388 14.93715954 15.09926033
15.24633312 14.97695732 15.08907795
15.28399658 14.93485165 15.09791565
15.31898975 14.88885689 15.10187912
15.24496460 14.97563171 15.09043407
15.24358654 14.97400570 15.08947277
15.28394413 14.93447590 15.09468079
15.31886196 14.88834286 15.09697247
15.24357510 14.97370434 15.08715343
15.28575802 14.93640804 15.09278870
15.32149506 14.89137554 15.09410381
15.32425785 14.89492321 15.09614086
15.24494362 14.97502995 15.08579636
15.28762531 14.93871593 15.09413147
15.24632168 14.97665596 15.08675861
15.06401062 14.90598679 15.08099651
15.11703205 14.88651943 15.07632446
15.11688709 14.88761806 15.07326031
15.06394386 14.90675831 15.07878971
15.06321049 14.90534401 15.07707882
15.11592865 14.88563347 15.07085991
15.06254196 14.90315723 15.07757282
15.11511517 14.88255119 15.07152462
15.06260967 14.90238762 15.07977962
15.11526108 14.88145256 15.07458782
15.11621952 14.88343716 15.07698822
15.06334400 14.90380096 15.08149147
14.80066967 14.65789032 4.20208216
14.80155754 14.66581249 4.19069338
14.98274517 14.76338387 4.25280428
14.79500675 14.67806339 4.19022083
14.98322392 14.77182961 4.24004459
15.13706875 14.85589123 4.30250692
14.78757000 14.68239307 4.20113659
15.13659382 14.86364365 4.28955984
15.22526360 14.90086651 4.32862282
15.22434330 14.90983582 4.31316662
15.21557331 14.92541218 4.31236982
14.97565746 14.78511906 4.23936939
15.12893677 14.87663269 4.28882980
15.20772266 14.93202019 4.32702923
14.96761227 14.78996181 4.25145388
15.12175369 14.88187122 4.30104685
15.12222862 14.87411785 4.31399345
15.20864391 14.92304993 4.34248495
14.96713257 14.78151608 4.26421404
15.12988567 14.86112785 4.31472349
15.21741390 14.90747356 4.34328175
14.97469902 14.76822758 4.26488924
14.78668308 14.67447090 4.21252537
14.79323292 14.66221905 4.21299839
14.71095276 14.61609077 4.16968632
14.70512295 14.62627125 4.16912794
15.66394711 15.34004879 3.27782583
15.66570663 15.33330917 3.26579499
15.49123001 15.21018982 3.29041958
15.67374706 15.32198048 3.26528454
15.49365330 15.20312119 3.27705741
15.34426403 15.09636784 3.30743074
15.68002796 15.31739235 3.27680492
15.34756279 15.09011078 3.29409194
15.25960922 15.03935623 3.31558251
15.26385784 15.03220940 3.29973841
15.27454281 15.01787663 3.29896545
15.50285149 15.19090271 3.27641535
15.35682011 15.07820320 3.29343581
15.28097820 15.01069164 3.31403637
15.50962448 15.18575191 3.28913569
15.36277771 15.07255363 3.30611849
15.35947990 15.07880974 3.31945705
15.27672958 15.01783943 3.32988024
15.50720215 15.19282055 3.30249786
15.35022163 15.09071732 3.32011318
15.26604366 15.03217125 3.33065319
15.49800396 15.20503902 3.30313993
15.67826653 15.32413006 3.28883576
15.67022705 15.33545876 3.28934598
15.75139618 15.39474583 3.26345444
15.75848103 15.38539314 3.26292706
15.39173698 14.72343922 2.13236761
15.39142132 14.65476990 2.04127216
15.39023304 14.71842003 2.13634276
15.39250946 14.65842247 2.03848600
15.39703178 14.65950680 2.03767157
15.39802933 14.72504520 2.13132930
15.40046883 14.65693665 2.03964281
15.40281963 14.72163200 2.13426638
15.39937973 14.65328503 2.04242897
15.40131569 14.71661186 2.13824201
15.39502144 14.71500683 2.13928008
15.39485645 14.65220070 2.04324341
15.57583618 14.46735954 1.99856043
15.58093262 14.56850529 2.05800772
15.57505703 14.57053185 2.05021858
15.57973766 14.46582890 2.00362515
15.59347725 14.36838627 1.94393194
15.58618259 14.46710777 2.00331450
15.59066391 14.57060528 2.05758834
15.59629822 14.36711979 1.94749951
15.60094070 14.36794662 1.94724774
15.58872414 14.46991920 1.99793947
15.59451962 14.57473087 2.04937959
15.60276222 14.37003899 1.94342816
15.58482265 14.47145081 1.99287486
15.58864498 14.57675743 2.04159045
15.57891369 14.57465744 2.04201007
15.59994125 14.37130547 1.93986034
15.57837772 14.47017097 1.99318540
15.59529972 14.37047863 1.94011223
15.95286560 14.20841026 1.98292243
15.90309906 14.31035519 1.99781275
15.90381813 14.31106377 1.99131358
15.95335388 14.20899868 1.97826338
15.95725536 14.21102047 1.97653365
15.90918541 14.31399918 1.98889613
15.96066856 14.21245289 1.97946274
15.91383362 14.31622410 1.99297786
15.96018124 14.21186447 1.98412156
15.91311455 14.31551456 1.99947703
15.90774727 14.31258011 2.00189447
15.95627975 14.20984364 1.98585129
15.26873875 15.01916790 2.86200523
15.40530109 15.06509686 2.78658247
15.27210045 15.01002789 2.84338927
15.40129089 15.05457401 2.77289200
15.27952480 14.99039364 2.84251451
15.58858490 15.12483978 2.66480613
15.59280109 15.13398647 2.67567968
15.40760136 15.03801823 2.77230978
15.41792107 15.03198814 2.78541827
15.28358746 14.97989941 2.86025572
15.59367275 15.11092758 2.66443110
15.80394363 15.20093727 2.51605749
15.80854416 15.20913887 2.52453947
15.60297775 15.10616016 2.67492890
16.02671051 15.28752613 2.36117887
16.03001213 15.29411221 2.36869931
15.80800629 15.18894291 2.51599836
16.03035545 15.27765369 2.36085176
15.81666756 15.18515110 2.52442098
16.03730392 15.27436447 2.36804509
15.60719585 15.11530685 2.68580222
15.82126713 15.19335270 2.53290367
16.04060555 15.28095055 2.37556601
15.81720543 15.20534801 2.53296256
16.03696060 15.29082394 2.37589312
15.60210705 15.12922001 2.68617773
15.42193127 15.04251194 2.79910851
15.28022575 14.98903942 2.87887192
15.41562080 15.05906677 2.79969120
15.27279949 15.00867367 2.87974668
15.78330612 15.08034134 2.42971849
15.78100777 15.08360481 2.42719603
15.72579765 15.10380363 2.52581000
15.78267193 15.08801842 2.42696977
15.72265148 15.10831165 2.52219915
15.67253876 15.14425182 2.61983752
15.66784286 15.15103149 2.61424732
15.72488022 15.11449528 2.52198172
15.67110825 15.16044235 2.61404037
15.78663254 15.08916950 2.42926574
15.73025513 15.11617279 2.52537465
15.67906952 15.16307449 2.61942434
15.68376541 15.15629482 2.62501526
15.78892994 15.08590698 2.43178821
15.73340130 15.11166477 2.52898550
15.68050003 15.14688301 2.62522173
15.78726768 15.08149242 2.43201423
15.73117256 15.10548019 2.52920318
15.60300732 14.84453011 5.94741011
15.63850594 14.77112961 5.85396719
15.60146618 14.83886337 5.95148897
15.63959408 14.77525139 5.85110998
15.64428711 14.77732754 5.85128260
15.60949326 14.84752178 5.94774628
15.64788818 14.77528191 5.85431194
15.61443615 14.84484863 5.95216227
15.64679909 14.77115917 5.85716915
15.61289406 14.83918285 5.95624113
15.60640812 14.83619118 5.95590496
15.64210701 14.76908398 5.85699654
15.87792683 14.60843086 5.86149406
15.84870529 14.71748352 5.92107773
15.84409237 14.71845531 5.91132545
15.88105392 14.60758781 5.86786509
15.92920494 14.50631428 5.81236935
15.88758278 14.61026287 5.86902285
15.85852051 14.72170162 5.92287159
15.93151951 14.50553513 5.81688261
15.93624878 14.50736046 5.81769133
15.89098454 14.61378098 5.86381102
15.86371994 14.72689056 5.91491270
15.93866253 14.50996590 5.81398726
15.88785744 14.61462498 5.85743999
15.85910702 14.72786236 5.90516043
15.84929276 14.72364426 5.90336657
15.93634701 14.51074409 5.80947351
15.88132763 14.61194897 5.85628176
15.93161869 14.50891972 5.80866432
16.32534409 14.40844250 5.94715643
16.24974632 14.50720787 5.94634581
16.25193977 14.50811100 5.93960142
16.32687187 14.40916824 5.94231081
16.33095360 14.41211987 5.94132185
16.25753593 14.51233482 5.93819380
16.33350754 14.41434288 5.94517803
16.26093674 14.51565552 5.94353151
16.33197975 14.41361618 5.95002317
16.25874138 14.51475143 5.95027590
16.25314713 14.51052856 5.95168304
16.32789803 14.41066456 5.95101166
15.23063850 14.99472904 2.50256395
15.41753101 14.98249435 2.40452075
15.23016548 14.98208141 2.47836304
15.40751076 14.97182465 2.38672280
15.22939205 14.95480537 2.47722244
15.66742516 14.96379375 2.24622130
15.67701530 14.97270584 2.26035690
15.40691853 14.94880199 2.38596296
15.41634750 14.93645000 2.40300155
15.22909164 14.94017696 2.50028276
15.66667080 14.94455147 2.24573135
15.96396828 14.94891453 2.05286098
15.97355080 14.95650196 2.06388831
15.42636776 14.94711971 2.42079949
15.22956371 14.95282459 2.52448440
